# .PCD v0.7 - Point Cloud Data file format
VERSION 0.7
FIELDS x y z
SIZE 4 4 4
TYPE F F F
COUNT 1 1 1
WIDTH 1494
HEIGHT 1
VIEWPOINT 0 0 0 1 0 0 0
POINTS 1494
DATA ascii
-0.063280001 0.37263 0.23664001
-0.062540002 0.37321001 0.23337001
-0.09003 0.37160003 0.21772
-0.089280002 0.37038004 0.21862
-0.088150002 0.37089002 0.2175
-0.099990003 0.37270004 0.21348999
-0.10127 0.36998999 0.21021999
-0.10198 0.37155002 0.21010999
-0.10134 0.37053001 0.20937
-0.099009998 0.37016004 0.21522
-0.056230001 0.38467002 0.23359001
-0.056949999 0.38380003 0.23444
-0.055380002 0.38634002 0.23433
-0.057709999 0.38218999 0.23370001
-0.05706 0.38297999 0.23285
-0.057119999 0.38245004 0.23195
-0.056990001 0.38183999 0.23072
-0.05565 0.38539004 0.23275
-0.092820004 0.38229001 0.20660999
-0.093180001 0.38059002 0.20869
-0.096840002 0.38718003 0.20446999
-0.094980001 0.38642001 0.20419
-0.09708 0.38613003 0.20534
-0.096150003 0.38572001 0.20519
-0.09448 0.38401002 0.2059
-0.094279997 0.38493001 0.20491
-0.096369997 0.38472003 0.20613
-0.090910003 0.38578999 0.20071
-0.096249998 0.38296002 0.19636001
-0.095600002 0.38192999 0.19561
-0.095919997 0.38367003 0.19549
-0.09082 0.38641 0.19988
-0.092560001 0.38809001 0.20067
-0.050269999 0.39366001 0.2291
-0.048719998 0.39682001 0.22811
-0.04941 0.39594001 0.22899
-0.09386 0.39144003 0.19955
-0.094509996 0.39310002 0.19896001
-0.093670003 0.39241004 0.19858
-0.048730001 0.39818001 0.22886001
-0.090429999 0.38940001 0.19559
-0.091179997 0.39054 0.19643
-0.090980001 0.38518 0.20155001
-0.045150001 0.39276999 0.23084
-0.043430001 0.38742 0.22299001
-0.041960001 0.38643003 0.22254001
-0.04259 0.38797003 0.22265001
-0.043760002 0.40008003 0.22911
-0.046969999 0.39894003 0.2261
-0.040800001 0.39763999 0.22605
-0.03951 0.39700001 0.22496
-0.038630001 0.39569002 0.2246
-0.091200002 0.39109999 0.19559
-0.091969997 0.39337999 0.19473
-0.091930002 0.39280999 0.19557001
-0.046519998 0.39783001 0.22522999
-0.046209998 0.39978999 0.22525001
-0.047309998 0.39848 0.22642
-0.092689998 0.39023 0.199
-0.093889996 0.39583004 0.19593
-0.09606 0.39107001 0.1926
-0.096550003 0.39247 0.19310001
-0.04321 0.40147001 0.22736
-0.10214 0.38626003 0.20632
-0.10324 0.38629001 0.20616999
-0.10533 0.38565004 0.20531
-0.099189997 0.38113999 0.2098
-0.098480001 0.37983 0.21064
-0.098760001 0.37875003 0.21146999
-0.098949999 0.38221002 0.20897
-0.096919999 0.3775 0.21253
-0.096359998 0.37540001 0.21443
-0.098240003 0.37629002 0.21312
-0.099019997 0.37740999 0.21213
-0.097439997 0.37527001 0.21417999
-0.098549999 0.37493002 0.21375
-0.096649997 0.37424999 0.21525
-0.10061 0.38352001 0.20795999
-0.1 0.38230002 0.20891
-0.10049 0.37979001 0.21022999
-0.09973 0.37858003 0.21112999
-0.10126 0.38102001 0.20936
-0.0955 0.37939 0.21080001
-0.096469998 0.37955999 0.21075
-0.09409 0.37638003 0.21385001
-0.0964 0.37049001 0.20693
-0.089769997 0.37752002 0.21033999
-0.091799997 0.37755001 0.21172
-0.091969997 0.37677002 0.2128
-0.10228 0.37572002 0.21026
-0.10017 0.37689 0.21155
-0.10048 0.37532002 0.21198
-0.097709998 0.3786 0.21152
-0.099229999 0.37305003 0.2067
-0.09967 0.37439001 0.21313
-0.10063 0.37513 0.21194001
-0.10225 0.37235004 0.20984
-0.10272 0.37885004 0.20911001
-0.093719997 0.37808001 0.21179999
-0.094300002 0.39408004 0.198
-0.093460001 0.39332002 0.19757999
-0.01426 0.32236999 0.15684
-0.0098599996 0.3249 0.15813001
-0.016380001 0.33059001 0.16193999
-0.021369999 0.32964 0.16306999
-0.02101 0.32868001 0.1621
-0.01973 0.32539999 0.15977
-0.01928 0.32422999 0.15910999
-0.018309999 0.32451999 0.15921
-0.0242 0.32312 0.16047999
-0.09296 0.39379001 0.19016001
-0.092050001 0.39405 0.19012
-0.01478 0.32093 0.15604
-0.0061000008 0.33767 0.16773
-0.0064300001 0.33546999 0.16532999
-0.0067199999 0.33629999 0.16655999
-0.0037300009 0.33689001 0.16726001
-0.0041199997 0.33500999 0.16467001
-0.0051300004 0.33487999 0.16436
-0.0043299999 0.33276999 0.1627
0.015659999 0.32861 0.16346
0.01495 0.3276 0.16203
0.015999999 0.32769001 0.16242
0.01464 0.32848999 0.16314
0.013629999 0.32833999 0.16283999
0.012339998 0.33171999 0.16503
0.011629999 0.33965999 0.17169
0.0062699988 0.34490001 0.18385001
0.0053799991 0.34446001 0.18397
0.005859999 0.34275001 0.18045001
0.0068500005 0.34290999 0.1805
0.022119999 0.31483999 0.15555
0.0231 0.31505001 0.15576001
0.024119999 0.31522 0.15605
0.023169998 0.31218001 0.15463001
0.019339997 0.32196 0.15943
0.01952 0.34604001 0.18358999
0.016519997 0.34619999 0.18332
0.01551 0.34639001 0.18319
0.014520001 0.34636003 0.1831
0.02282 0.34105 0.17744
0.023169998 0.34136999 0.17792
0.02217 0.34152001 0.17782
-0.018540001 0.28830999 0.15481
-0.019610001 0.28707999 0.15651
-0.01874 0.28788 0.15633
-0.019509999 0.28762999 0.15488
-0.0187 0.29267001 0.16252001
-0.018650001 0.29323 0.16165
-0.018270001 0.29155001 0.16178
-0.018230001 0.29211 0.16091
-0.021910001 0.28547999 0.17082
-0.020950001 0.28578001 0.17091
-0.019309999 0.28702 0.17016999
-0.01691 0.29887 0.15617999
-0.018340001 0.29912001 0.15787999
-0.014870001 0.29949999 0.15456
-0.02248 0.28037 0.14576
-0.01599 0.28711 0.14777
-0.01698 0.28683001 0.14774001
-0.01712 0.28773001 0.14906
-0.01554 0.28740999 0.14796001
-0.017589999 0.28889999 0.15476
-0.01853 0.29561999 0.16063
-0.019850001 0.29826 0.16128001
-0.01753 0.29576999 0.15812001
-0.01801 0.29688001 0.15885
-0.019889999 0.29769999 0.16215
-0.018650001 0.28338999 0.14534
-0.01458 0.28771001 0.14805
-0.016109999 0.2861 0.14695001
-0.01197 0.30019999 0.15272
-0.01336 0.30102 0.15338001
-0.01258 0.30173999 0.15285
-0.01274 0.29947999 0.15325999
-0.02218 0.31182 0.15776999
-0.02073 0.28417 0.14715999
-0.01795 0.29980001 0.15696999
-0.018990001 0.30072001 0.15775
-0.017039999 0.29648 0.15721001
-0.016899999 0.29471999 0.15734001
-0.015010001 0.29716 0.15504
-0.015620001 0.29800999 0.15538
-0.021199999 0.30199999 0.16022
-0.01801 0.30575001 0.15566
-0.01914 0.30485001 0.15661
-0.038169999 0.31029001 0.17693999
-0.039639998 0.31130999 0.17737
-0.038699999 0.31163001 0.17738999
-0.036929999 0.31257001 0.17708001
-0.037780002 0.31200001 0.17735
-0.02517 0.31048 0.16125999
-0.03053 0.28551999 0.17141999
-0.032669999 0.28279999 0.17139
-0.03145 0.28514999 0.17144001
-0.024639999 0.24284002 0.21243
-0.039239999 0.26688999 0.2261
-0.03926 0.26640004 0.22510999
-0.02588 0.27958 0.23072
-0.025319999 0.28092 0.23173
-0.026900001 0.27665001 0.22920001
-0.02798 0.28220999 0.23359001
-0.027279999 0.27766001 0.23016
-0.027620001 0.27851999 0.23143999
-0.02939 0.26849002 0.22147
-0.030130001 0.26774001 0.22005001
-0.030379999 0.26831001 0.22127999
-0.02919 0.26546001 0.21501
-0.025490001 0.27578002 0.2287
-0.02451 0.27601999 0.22894999
-0.02472 0.28218001 0.23289999
-0.02427 0.28104001 0.23222999
-0.023469999 0.27894002 0.23049
-0.03142 0.31579 0.17174999
-0.031399999 0.31635001 0.17088
-0.02438 0.32914999 0.16459
-0.028279999 0.32547 0.16496
-0.027480001 0.32611999 0.16452999
-0.02997 0.32269999 0.16700999
-0.029510001 0.32212999 0.16539
-0.027930001 0.32455999 0.16392
-0.0287 0.32383999 0.16446
-0.028969999 0.32286 0.16449
-0.029130001 0.32407001 0.16524
-0.049350001 0.31694999 0.18238001
-0.05263 0.31707999 0.18302
-0.053520001 0.31659001 0.18322
-0.05184 0.3123 0.17976999
-0.052779999 0.31191 0.1798
-0.046239998 0.30892 0.17715999
-0.047169998 0.30857 0.17713
-0.04668 0.30732 0.17655
-0.0309 0.31636 0.1684
-0.03094 0.31816 0.16825999
-0.03091 0.31580001 0.16926999
-0.02544 0.27837002 0.14749999
0.0094899982 0.34086999 0.17267001
0.005309999 0.33866 0.16945
0.0032499991 0.33842 0.16875
-0.00026999973 0.35087001 0.19251999
0.029819999 0.34266001 0.18242
0.03187 0.34204 0.18271001
0.023049999 0.34235999 0.17907999
0.042739995 0.33122 0.1846
0.041129999 0.33427 0.18437
0.041110002 0.33295 0.18359999
0.0436 0.329 0.18309
0.024499997 0.33847001 0.17583001
0.059979998 0.32166001 0.18415999
0.060959995 0.32166001 0.18425
0.024889998 0.33537 0.17229
0.025759999 0.33603999 0.17366
0.059469998 0.31908 0.17885999
0.061229996 0.3175 0.17787001
0.04733 0.33175001 0.21085
0.04575 0.33482 0.21065
0.045159996 0.33526999 0.21223
0.048459999 0.32965001 0.20935
-0.0043800008 0.35460001 0.20349
-0.0034699999 0.35509002 0.20483001
-0.0042700004 0.35420001 0.20219
-0.0044500008 0.35469002 0.20486
-0.03977 0.39693999 0.2193
-0.038880002 0.39762002 0.21875
0.06758 0.31650001 0.1841
0.03286 0.34182 0.18286
0.033879999 0.34141001 0.18303999
0.034030002 0.34046999 0.18184
0.034979999 0.34013 0.18217
0.065609999 0.32005 0.18540999
0.06566 0.32082 0.18698999
0.064630002 0.32016999 0.18454
0.065070003 0.32109001 0.18615
0.062830001 0.32229 0.1857
0.064429998 0.32209 0.18688001
0.063830003 0.32198 0.18584999
0.062980004 0.32133001 0.18449
0.02386 0.34110001 0.17786001
-0.038929999 0.40208 0.2208
-0.039799999 0.40240002 0.22018
-0.040240001 0.40309 0.22077
-0.040040001 0.40272003 0.22045
0.025199998 0.34077999 0.17823
0.01565 0.33427 0.16816001
0.018999998 0.33677 0.17136
0.018629998 0.33778 0.1723
0.014789999 0.3378 0.17095
0.024870001 0.33282 0.16971999
0.022569999 0.33823001 0.17433999
0.02245 0.33926001 0.17550001
0.0019300003 0.34802002 0.18996
0.0012699999 0.34685004 0.18864
0.0038699992 0.34852999 0.19025999
-0.00734 0.35286003 0.20373
-0.0062199999 0.35315001 0.20231
-0.0063300002 0.35355002 0.20361
-0.0072100004 0.35266 0.20237
-0.0070000002 0.35232002 0.19964001
-0.0060099997 0.35282999 0.19958
-0.0080899997 0.35197002 0.20106
-0.0089499997 0.35127002 0.19975001
-0.01005 0.35083002 0.20119999
0.0071399994 0.35690004 0.20945001
0.016259998 0.34798002 0.18569
-0.0103 0.33866 0.17014
-0.01312 0.33719 0.16884001
-0.037489999 0.3955 0.21845999
-0.035489999 0.39547002 0.21901999
-0.036509998 0.39718002 0.21857999
-0.0012299996 0.35061002 0.19239999
-0.0017099995 0.34182999 0.1744
-0.00081999972 0.34211999 0.17581999
-0.0036900006 0.34145001 0.17433
-0.00765 0.34064999 0.1742
-0.00667 0.34083 0.17423999
0.045449995 0.32464001 0.18009
0.044419996 0.32602999 0.18001001
0.043899998 0.32710001 0.18074
0.045139998 0.3258 0.18084
0.044759996 0.32488999 0.17924
0.047289997 0.32244 0.18193001
0.047880001 0.32082 0.18205
0.047389999 0.32117999 0.18121
0.050449997 0.32593 0.20555
0.049619995 0.32800999 0.20460001
0.050159998 0.32696 0.20386
0.063529998 0.31222999 0.17677
0.063649997 0.3136 0.17753001
0.02612 0.32962 0.16725001
0.036940001 0.32730001 0.23351
0.036029998 0.32431999 0.23491
0.037799999 0.32609001 0.23326001
0.03726 0.32551 0.23386
0.034600001 0.32488 0.23571999
0.036589999 0.32907 0.23311
0.0383 0.32914999 0.23142
0.037889998 0.32852 0.23216
0.038369998 0.33157 0.23029
0.038720001 0.32734999 0.23188999
0.038290001 0.32670999 0.2326
0.039129999 0.32798001 0.23114
0.03954 0.32861999 0.2304
0.02722 0.31562001 0.15701
0.019899998 0.28448999 0.16636001
0.020190001 0.28567001 0.16486999
0.021169998 0.28566 0.16506
0.027489997 0.33168 0.17005999
0.02561 0.33711001 0.17486
0.031509999 0.33809999 0.17817999
0.032960001 0.33712 0.17772999
0.031959999 0.33699 0.17742001
0.026769999 0.3355 0.17387
0.027029999 0.33566999 0.1743
0.029819999 0.33429 0.17439
0.031380001 0.33572999 0.17635
0.027829997 0.33491999 0.17406
0.018679999 0.33807001 0.17264
0.017579999 0.33768001 0.17191
0.014660001 0.33879 0.17214
0.011069998 0.34211001 0.17818999
0.01207 0.34209999 0.17827
0.012180001 0.34163001 0.17698
-0.023360001 0.29653001 0.17057
-0.0012999997 0.33063 0.16214
-0.0023299996 0.33045 0.16185001
-0.0028200001 0.32901001 0.16108
-0.0018600002 0.32927001 0.16121
-0.00029000081 0.33079001 0.16243
-0.0028300006 0.33181 0.16225
-0.0049099997 0.32879001 0.16034
-0.00581 0.33109999 0.16170999
-0.0059000012 0.32585999 0.15881
-0.0073899999 0.32686999 0.1592
0.0024199989 0.3238 0.1584
0.00047999993 0.32326999 0.15812001
-0.00045000017 0.32293001 0.15804
7.0000067e-05 0.32157001 0.1577
0.0057599992 0.31531999 0.15414
0.004759999 0.31505999 0.15401
0.0042400006 0.31641001 0.15442
-0.01331 0.31718001 0.15439001
-0.004900001 0.32052001 0.15659
-0.0063800002 0.32152 0.15700001
-0.0044 0.322 0.15735
-0.0048600007 0.32317001 0.15802
-0.0089100003 0.32246 0.15695
-0.0074200006 0.32416999 0.15786999
0.006719999 0.31834999 0.15554
0.013969999 0.32742 0.16179
0.0073099993 0.32785001 0.16038001
0.0023299996 0.33241001 0.16403
0.00495 0.32284999 0.15847
0.0040199999 0.32249001 0.15846001
0.0098900013 0.31305999 0.15425
0.0087700002 0.31309 0.15370999
0.0093299989 0.31169999 0.15335
0.0077800006 0.31288001 0.15349001
0.0083099995 0.31152999 0.15307
0.0014500003 0.31806999 0.1557
0.0028499998 0.31726 0.15504
0.0043499991 0.31336999 0.15355
0.0039499998 0.31167001 0.15312999
0.0023800004 0.31292 0.15317
0.0033400003 0.3132 0.15331
0.0052300002 0.31672001 0.15451001
0.014669999 0.31183001 0.15339001
0.019609999 0.31294 0.15437999
0.01816 0.31389999 0.15482999
0.01921 0.31406 0.15512
0.020169999 0.31431001 0.15527999
0.019090001 0.31132999 0.15376
-0.02087 0.28492001 0.14791
-0.01808 0.30392 0.15584999
-0.016559999 0.31720001 0.15513
-0.019649999 0.31152999 0.15605
-0.021400001 0.30610999 0.15904
-0.01335 0.30908 0.15277
-0.01279 0.30768001 0.15243
-0.01419 0.30849001 0.15308
-0.01196 0.30825999 0.15211
-0.01247 0.30959001 0.15256
-0.018300001 0.31079 0.15527
-0.01378 0.31562999 0.15377
0.0005900003 0.32027 0.15723
-0.00043000095 0.32010001 0.15695
-0.0038799997 0.32339999 0.1582
-0.0034800004 0.31961 0.1561
0.0049099997 0.31197 0.15323
0.0088999998 0.31556001 0.15535
0.0053199995 0.31367999 0.15363
0.007819999 0.31553999 0.15488
-0.01039 0.31803 0.15471999
-0.0040099993 0.31545001 0.15401
-0.0081200004 0.30673 0.15115
-0.0075099999 0.30519 0.15101001
-0.0090500005 0.30634999 0.15121
-0.0071600005 0.30702999 0.15124001
-0.0087299999 0.30825999 0.15132
-0.0067800004 0.30879 0.15162
0.0045100003 0.31028 0.15279
0.0035199989 0.31005001 0.15260001
-0.00032000057 0.30886 0.15225001
0.0060399994 0.30908999 0.15268999
-0.01764 0.28378999 0.14535999
-0.019789999 0.30410001 0.1575
-0.01898 0.30309999 0.15673999
0.01839 0.32440999 0.16061001
0.0057500005 0.33750999 0.16872001
0.00385 0.33403 0.16508
0.0022599995 0.33822 0.16852
0.0041499995 0.33610001 0.16734999
0.0061799996 0.3364 0.16795
0.0065499991 0.33539999 0.16703001
0.0087199993 0.3355 0.16795
0.0076299999 0.33544999 0.1675
0.0048699994 0.32855999 0.16067
0.005859999 0.32879999 0.16085
0.00447 0.32960001 0.16153
0.0054499991 0.32984999 0.16169
0.0034800004 0.32938999 0.16132
0.0038799997 0.32833001 0.16047999
0.0033599995 0.32690999 0.15966
0.010820001 0.33276999 0.16532999
0.0097999983 0.33261001 0.16505
0.011829998 0.33289999 0.16565999
0.0033199992 0.33265001 0.16422001
0.0034400001 0.32396999 0.15865
0.0094099995 0.31707001 0.15601
0.010419998 0.31722 0.15633
0.0099500008 0.31564999 0.15575001
0.0035599992 0.32095 0.15781
0.015080001 0.27993 0.17017999
-0.00074999966 0.33195001 0.1631
9.999983e-05 0.33533001 0.16632999
-0.0012500007 0.33611 0.16707
0.00031000003 0.33765 0.16829
-0.0019499995 0.33513001 0.16561
0.0012699999 0.33796 0.16835999
-0.00057000108 0.33425 0.16500001
0.053779997 0.31165999 0.17217
0.053389996 0.31270999 0.17299999
0.052809998 0.31141001 0.17199001
0.05212 0.31327999 0.17403001
0.056299999 0.3107 0.17220999
0.057379998 0.30792999 0.17145
0.053970002 0.31400999 0.17402001
0.060559995 0.31082001 0.17407
0.031959999 0.29029 0.15666001
0.032949999 0.29065001 0.15679
-0.01238 0.33855999 0.17144001
-0.01325 0.33776 0.17012
-0.014120001 0.33687001 0.16881
-0.03946 0.38815004 0.22136
-0.096699998 0.37807 0.20073999
-0.095030002 0.37672001 0.19840001
-0.08653 0.37575001 0.19736999
-0.086910002 0.37470001 0.19568001
-0.086779997 0.37621999 0.19653
-0.087099999 0.37665004 0.19568001
-0.093359999 0.37351 0.19618
-0.093910001 0.37401003 0.19778
-0.093369998 0.37294 0.19702999
-0.04267 0.39624 0.22147
-0.04501 0.39408004 0.22334
-0.043249998 0.39759004 0.22188
-0.043650001 0.39335001 0.22243001
-0.0082799997 0.34899002 0.19337
-0.0063900007 0.35005003 0.19317
-0.0033800006 0.35506004 0.20344
-0.01359 0.34360003 0.18787
-0.01554 0.33790001 0.17422999
-0.0116 0.33939001 0.17418
-0.01767 0.33658001 0.17721
-0.017790001 0.34060001 0.18719
-0.018689999 0.34016001 0.18731
-0.01678 0.33680001 0.17865001
-0.016690001 0.33721 0.17713
-0.01571 0.33761001 0.17711
-0.01325 0.33937001 0.18401
-0.01312 0.33807999 0.1829
-0.01213 0.33847001 0.18289
-0.0090800002 0.33961001 0.18142
-0.00973 0.34003001 0.17561001
-0.0086500002 0.34038001 0.17419
-0.00954 0.33985001 0.17281
-0.0096399998 0.34009999 0.17418
-0.0085399998 0.34022 0.1728
-0.01052 0.33956 0.1728
-0.01383 0.33823001 0.17852999
-0.01481 0.33772001 0.17858
-0.01196 0.33875999 0.17998999
-0.01089 0.33934 0.17851
-0.01387 0.33529001 0.16672
-0.01291 0.33561999 0.16678999
-0.01458 0.33333001 0.16384
-0.01393 0.33254999 0.16305
-0.0116 0.33496001 0.16584
-0.01195 0.33590001 0.16689
-0.0137 0.33383 0.16522001
-0.02156 0.33392 0.17753001
-0.0087200003 0.33028001 0.16132
-0.0093400003 0.33465999 0.16495
-0.01126 0.33408001 0.16475999
-0.0077100005 0.33607 0.16637
-0.0086700004 0.33577001 0.16628
-0.026380001 0.33506 0.18512
-0.025189999 0.33756 0.18742
-0.023630001 0.33928001 0.18886
-0.02555 0.33849999 0.18849
-0.023739999 0.33985001 0.19014999
-0.01591 0.34413004 0.18970001
-0.042800002 0.38587999 0.22287001
-0.043680001 0.38538003 0.22311001
-0.047200002 0.38345999 0.22394
-0.048069999 0.38297004 0.22417
-0.04778 0.38494003 0.2242
-0.036210001 0.38612002 0.22132
-0.035549998 0.38451999 0.22203
-0.033569999 0.38714999 0.22028001
-0.03971 0.38352001 0.22254001
-0.039019998 0.38435 0.22227
-0.040440001 0.38532001 0.22226
-0.090960003 0.37550002 0.18903001
-0.089060001 0.37735999 0.18916
-0.089890003 0.37744999 0.18863
-0.088799998 0.37275004 0.19035
-0.087810002 0.37088001 0.19256
-0.02286 0.33259001 0.16766
-0.094290003 0.36875999 0.20546
-0.086879998 0.36896002 0.19496
-0.086929999 0.36750001 0.19491
-0.086439997 0.36872 0.1962
-0.085469998 0.36537004 0.19844
-0.086669996 0.36574 0.19643
-0.092639998 0.36952001 0.19727001
-0.043000001 0.33465001 0.19707
-0.041239999 0.33601001 0.19972
-0.042020001 0.33508 0.19702999
-0.08365 0.36480999 0.20144001
-0.083499998 0.36607003 0.20163999
-0.084169999 0.36647999 0.20039
-0.084260002 0.36500001 0.20044
-0.04025 0.33627999 0.19972999
-0.040150002 0.33601001 0.19837999
-0.038290001 0.33722001 0.19965
-0.038389999 0.33747 0.20100001
-0.037310001 0.33761999 0.19961999
-0.036959998 0.33640999 0.19566999
0.063660003 0.31621 0.17905
0.056369998 0.3193 0.18004
0.05624 0.31985 0.18134999
0.058349997 0.31977999 0.18008
0.055270001 0.31942001 0.18138
0.063500002 0.31744999 0.17975999
0.062770002 0.31375 0.17668
0.052329995 0.31784001 0.18152
0.052220002 0.31823999 0.18288
0.06594 0.31296 0.18009
0.054179996 0.31940001 0.18276
0.055160001 0.31992 0.18272001
0.057229996 0.32023001 0.18134999
0.057349995 0.31962001 0.18003
0.058880001 0.31507 0.17508
0.023779999 0.34402001 0.23416001
0.009519998 0.33963001 0.24212
0.0085300002 0.33976999 0.24208
0.0082299989 0.33838999 0.2427
0.016679998 0.33033001 0.24259
0.014139999 0.33603999 0.24228001
0.019880001 0.31948 0.24236
0.020539999 0.31779999 0.24274001
0.01805 0.32409999 0.24225999
0.019509997 0.32312 0.24196
0.015639998 0.32477999 0.24247
0.016569998 0.32515001 0.24243
0.01599 0.32661 0.24253
0.054529995 0.31764001 0.20273
0.054699995 0.31832999 0.20151
0.059069999 0.31507999 0.20502999
0.054229997 0.31597999 0.20609
0.060149997 0.31534001 0.2054
0.066289999 0.3152 0.20456
0.066940002 0.31420001 0.20468
0.061459996 0.31663001 0.20486
0.054729998 0.31435001 0.20551001
0.05235 0.31404999 0.21369
0.05985 0.31393999 0.20603999
0.053130001 0.32016999 0.2026
0.053750001 0.31878999 0.20344999
0.0537 0.31845 0.20491
0.053059995 0.32021999 0.20441
0.054260001 0.31646001 0.20527001
0.05133 0.31380999 0.21617
0.05156 0.31446999 0.21523
0.051689997 0.31276 0.21538
0.06318 0.31167999 0.20711
0.065399997 0.31132001 0.20671
0.059099995 0.31061 0.20694
-0.050469998 0.39352 0.22938
-0.099919997 0.38710999 0.20564
-0.098970003 0.38679999 0.20555
-0.09939 0.38947999 0.20406
-0.096359998 0.38942999 0.20280001
-0.097510003 0.38870001 0.20381001
-0.094729997 0.39210999 0.1999
-0.095849998 0.39162004 0.20107999
-0.099040002 0.39341003 0.19568001
-0.09832 0.39419001 0.19491
-0.099430002 0.38498002 0.19946
-0.097769998 0.38757002 0.20461001
-0.047970001 0.40040004 0.22876
-0.048069999 0.39899004 0.22802
-0.04851 0.39965004 0.22961
-0.049419999 0.39458001 0.22824
-0.10136 0.38498002 0.20714
-0.10115 0.38613003 0.20638999
-0.088699996 0.38266999 0.20073
-0.088789999 0.38319999 0.19988
-0.095749997 0.38429999 0.19465999
-0.070380002 0.27329999 0.20992
-0.068839997 0.27206004 0.20958
-0.0669 0.27056003 0.21574999
-0.067809999 0.27144003 0.21649
-0.067450002 0.27103001 0.21732999
-0.06938 0.27254999 0.21157999
-0.066490002 0.27012002 0.21659
-0.068510003 0.27206999 0.20759
-0.068850003 0.27205002 0.21001001
-0.067879997 0.27147001 0.20981
-0.065839998 0.26963001 0.21738
-0.035999998 0.23745002 0.19899
-0.036850002 0.23907001 0.19846
-0.03638 0.23866001 0.19955
-0.07124 0.27412003 0.20825
-0.066930003 0.27064002 0.21816
-0.066469997 0.27026999 0.21843
-0.08461 0.29121 0.24713001
-0.083400004 0.28990999 0.24970999
-0.034839999 0.23608002 0.20231999
-0.062930003 0.27073002 0.22544999
-0.06236 0.26982999 0.22459
-0.067129999 0.27111 0.21943
-0.074199997 0.27695 0.21528
-0.074699998 0.27745003 0.21685
-0.073200002 0.27619004 0.21695
-0.071680002 0.27494001 0.21704
-0.072229996 0.27531004 0.21620999
-0.064949997 0.26914001 0.21596
-0.062350001 0.26862001 0.20532
-0.062809996 0.26894003 0.20438001
-0.061760001 0.2683 0.20451
-0.036090001 0.23808001 0.20088001
-0.059769999 0.31343001 0.18666001
-0.060589999 0.31279999 0.18708
-0.06016 0.3145 0.18753999
-0.058880001 0.31668001 0.18784
-0.072580002 0.30822 0.19441999
-0.072159998 0.30983999 0.19504
-0.072910003 0.30904999 0.19569001
-0.07728 0.31522 0.20802
-0.075879999 0.31408 0.20627999
-0.078120001 0.31470999 0.20830999
-0.08946 0.36120003 0.19735999
-0.05226 0.30283999 0.24732
-0.032370001 0.26608002 0.19718
-0.067170002 0.27446002 0.22486
-0.068159997 0.27307999 0.221
-0.068669997 0.27407002 0.22182
-0.055489998 0.29769999 0.25345001
-0.043839999 0.29565001 0.24150001
-0.049710002 0.27205002 0.23388
-0.079089999 0.28881001 0.25402001
-0.078469999 0.28797001 0.25308999
-0.07762 0.28793001 0.25364
-0.079599999 0.28977001 0.25481999
-0.076949999 0.28981 0.25637999
-0.077380002 0.29089001 0.25705001
-0.077869996 0.28977001 0.25588
-0.077359997 0.28881001 0.25507
-0.078740001 0.28977001 0.25534999
-0.072209999 0.2913 0.25685999
-0.074299999 0.28602999 0.24902
-0.075290002 0.28604999 0.24883001
-0.06425 0.28819999 0.25505
-0.065229997 0.28808999 0.25486001
-0.072130002 0.28751001 0.25353
-0.072379999 0.28836 0.25483999
-0.073349997 0.2881 0.25468999
-0.076760001 0.28794 0.25417
-0.081540003 0.29321 0.25613001
-0.082010001 0.29211 0.25494999
-0.081270002 0.29571 0.25773001
-0.082029998 0.29585001 0.25705999
-0.079860002 0.29317001 0.25723001
-0.09262 0.32027 0.25246
-0.092030004 0.32156 0.25347999
-0.093060002 0.31918001 0.25125
-0.086900003 0.31325001 0.25894001
-0.087710001 0.31233001 0.25757
-0.06064 0.30959001 0.25648001
-0.061949998 0.31022999 0.25749001
-0.084250003 0.30160999 0.25734001
-0.09144 0.30627999 0.23857
-0.09144 0.30752999 0.23928
-0.085210003 0.29346001 0.25095001
-0.093489997 0.3188 0.24973001
-0.093000002 0.31843001 0.25059
-0.093620002 0.31953999 0.25037
-0.087159999 0.30820999 0.25624999
-0.087339997 0.30939001 0.25696
-0.087339997 0.31051999 0.25753
-0.08433 0.29392999 0.25325
-0.083760001 0.29363999 0.25409999
-0.085409999 0.29592001 0.25235999
-0.085730001 0.29512 0.25081
-0.085809998 0.29633 0.25150999
-0.076959997 0.28007001 0.21421
-0.077540003 0.28108999 0.21493
-0.095399998 0.32282999 0.24778999
-0.095200002 0.32221001 0.24620999
-0.093610004 0.32668 0.25069001
-0.089830004 0.31560001 0.25407001
-0.08963 0.31371999 0.25178
-0.090120003 0.31479001 0.2525
-0.089709997 0.31439 0.25334999
-0.08941 0.31518999 0.25490999
-0.089340001 0.31395999 0.25418001
-0.091200002 0.31615001 0.25178
-0.090580001 0.31518 0.25165999
-0.091169998 0.31551999 0.25081
-0.090630002 0.31582999 0.25262001
-0.088979997 0.31354001 0.25503999
-0.088550001 0.31187999 0.25516999
-0.093149997 0.31825 0.24815001
-0.093780003 0.31926 0.24888
-0.090970002 0.31452 0.24198
-0.091480002 0.31626001 0.24427
-0.090549998 0.31411999 0.24281999
-0.091130003 0.31516001 0.24354
-0.091569997 0.31553999 0.2427
-0.088789999 0.31235999 0.25432
-0.088639997 0.31310001 0.25587001
-0.088629998 0.31421 0.25635999
-0.08907 0.31281 0.25347
-0.087480001 0.31672999 0.25849
-0.02634 0.23531002 0.20477
-0.027319999 0.23510002 0.20458999
-0.026079999 0.23633002 0.20343
-0.034170002 0.23724002 0.19781999
-0.043979999 0.24795002 0.17483
-0.03052 0.25577003 0.18911
-0.02957 0.25547004 0.18984
-0.031429999 0.25366002 0.18926001
-0.01695 0.25859004 0.17746
-0.01596 0.25870001 0.17764001
-0.01794 0.25849003 0.17728999
-0.015220001 0.25910002 0.17908999
-0.034090001 0.24072002 0.19220001
-0.032839999 0.24172002 0.19101
-0.032650001 0.23903002 0.19529
-0.03118 0.25771004 0.16670001
-0.039519999 0.26591003 0.17467999
-0.040899999 0.26478004 0.17321
-0.032450002 0.25642002 0.16796
-0.038660001 0.25357002 0.16846
-0.035969999 0.25340003 0.17035
-0.037239999 0.25211 0.17161
-0.041280001 0.26311004 0.17824
-0.04747 0.25029999 0.17386
-0.047800001 0.25082999 0.17259
-0.048099998 0.25124002 0.17162
-0.034540001 0.24295002 0.18923
-0.034809999 0.24183002 0.19062001
-0.03551 0.24327001 0.18901999
-0.035780001 0.24227001 0.1904
-0.039360002 0.24643001 0.18291999
-0.04064 0.24761002 0.18309
-0.03977 0.24758002 0.18362001
-0.040830001 0.24653001 0.17963
-0.062639996 0.26952004 0.20118999
-0.06126 0.26866001 0.20189001
-0.06222 0.26911002 0.20166001
-0.06233 0.26906002 0.20203
-0.064070001 0.27029002 0.20197
-0.06247 0.26893002 0.20297
-0.06151 0.26837003 0.20321
-0.041919999 0.25729001 0.18265
-0.042229999 0.25547999 0.18284
-0.042739999 0.25737 0.18207
-0.0414 0.2554 0.18340001
-0.042270001 0.25385004 0.18268999
-0.035530001 0.25173002 0.17332999
-0.0436 0.25738001 0.18144
-0.04256 0.25942999 0.18116
-0.0385 0.25089002 0.17286
-0.096950002 0.39583999 0.19889
-0.048489999 0.40042001 0.23124
-0.046319999 0.40121001 0.23281001
-0.075750001 0.28683001 0.19660001
-0.076609999 0.28718999 0.19821
-0.076269999 0.28786001 0.19732
-0.07807 0.28268 0.21479
-0.07852 0.28363001 0.21309
-0.076559998 0.28014001 0.21179999
-0.078769997 0.28532001 0.21294001
-0.076580003 0.28059 0.20852999
-0.077330001 0.28152001 0.20925
-0.077600002 0.28198999 0.20840999
-0.077079996 0.28106999 0.21010999
-0.076180004 0.28016001 0.20937
-0.090989999 0.3026 0.234
-0.091590002 0.30416 0.23386
-0.091190003 0.30309001 0.23315001
-0.07824 0.28408 0.20739999
-0.077710003 0.28251001 0.20756
-0.07773 0.28305 0.20669
-0.078230001 0.28352001 0.20827
-0.074989997 0.28589001 0.19588
-0.075120002 0.28527999 0.19675
-0.078570001 0.28806001 0.20621
-0.078740001 0.28687999 0.20795999
-0.078589998 0.28984001 0.206
-0.078659996 0.28636 0.20881
-0.077809997 0.28356999 0.20584001
-0.078510001 0.2863 0.20640001
-0.078539997 0.28573999 0.20725
-0.050110001 0.30452001 0.24606
-0.04287 0.30136001 0.24126001
-0.055319998 0.28112999 0.23817
-0.055849999 0.27955002 0.23755001
-0.054869998 0.27982002 0.23773
-0.064929999 0.28758001 0.24795
-0.060029998 0.2723 0.23007999
-0.060529999 0.27329999 0.23085999
-0.060860001 0.27232999 0.22953001
-0.059050001 0.26966 0.22679999
-0.061659999 0.27239001 0.22894
-0.062710002 0.27158004 0.22691
-0.055229999 0.26513004 0.21811
-0.051800001 0.26499003 0.22145
-0.058359999 0.26885003 0.22579999
-0.052060001 0.28086001 0.23781
-0.052990001 0.28051001 0.23778
-0.052540001 0.27933002 0.23716
-0.061650001 0.26903999 0.22353999
-0.060860001 0.26896 0.22414
-0.049150001 0.28446001 0.23946001
-0.050560001 0.28529999 0.24004
-0.04865 0.28316 0.23908
-0.0471 0.28198001 0.23916
-0.046720002 0.28374001 0.23934001
-0.03059 0.24108002 0.21064
-0.038029999 0.27232999 0.23233999
-0.038449999 0.27344 0.23309
-0.04606 0.27654004 0.23743001
-0.048020002 0.27603 0.237
-0.0429 0.27661002 0.23642001
-0.042010002 0.27714002 0.23608001
-0.043370001 0.27508003 0.2358
-0.04377 0.27614003 0.2367
-0.042350002 0.27802002 0.23733
-0.04329 0.27768004 0.23731001
-0.048009999 0.27878004 0.23817
-0.046969999 0.27895999 0.23851
-0.044670001 0.27572 0.23683
-0.04465 0.28121001 0.23917
-0.05116 0.2719 0.23322999
-0.0425 0.26339 0.21532001
-0.030339999 0.26490003 0.21145999
-0.02888 0.26463002 0.21288
-0.02966 0.26473004 0.21222
-0.031230001 0.26516002 0.21348999
-0.028960001 0.26391 0.21119
-0.0319 0.26502001 0.21318001
-0.032280002 0.26493001 0.21296
-0.032639999 0.26482999 0.21172
-0.032880001 0.26481003 0.21301
-0.03215 0.26502001 0.21448
-0.033119999 0.26477003 0.21431001
-0.032389998 0.26498002 0.21041
-0.03229 0.26499999 0.20993
-0.033369999 0.26475 0.21024001
-0.031879999 0.26502001 0.21018
-0.040279999 0.26356 0.21438999
-0.04078 0.26381999 0.21694
-0.041359998 0.26343 0.21417999
-0.04053 0.26362002 0.21567
-0.039549999 0.26374 0.21585
-0.039790001 0.26401001 0.21712001
-0.039549999 0.26773 0.22741
-0.050719999 0.26750004 0.22696
-0.04981 0.26741999 0.22703999
-0.045880001 0.26767999 0.2278
-0.043499999 0.26684004 0.22633
-0.043439999 0.26640999 0.22563
-0.041999999 0.27140999 0.23128
-0.049649999 0.26761001 0.22743
-0.02654 0.24223001 0.21232
-0.0262 0.24410002 0.21205001
-0.028000001 0.24043001 0.21152
-0.061650001 0.26840001 0.22179
-0.062399998 0.26915002 0.22287001
-0.06239 0.26851004 0.22112
-0.03334 0.23550001 0.20465
-0.063280001 0.26824999 0.21769001
-0.062969998 0.26817 0.21853
-0.06363 0.26840001 0.21777
-0.053569999 0.26587003 0.22243001
-0.05517 0.26668 0.22297999
-0.05438 0.26593 0.22183999
-0.038320001 0.24831001 0.17722
-0.04222 0.25089002 0.1822
-0.04222 0.25237 0.18245
-0.042860001 0.25107002 0.18145999
-0.042780001 0.24964002 0.18115
-0.041549999 0.25371999 0.18336999
0.023649998 0.26225001 0.21407001
0.022639997 0.26221001 0.21676999
0.022709999 0.26188999 0.21412
0.023569997 0.26257002 0.21686999
0.02361 0.25944 0.21308
-0.01277 0.25840002 0.17692
-0.01327 0.25875002 0.17951
-0.01302 0.25858003 0.17821001
-0.0296 0.25316 0.1743
-0.02932 0.25433999 0.17287
-0.03059 0.25294 0.17414001
-0.030309999 0.25411004 0.1727
-0.032559998 0.25249004 0.17381001
0.0055199992 0.24526002 0.20874
0.0065100007 0.24557002 0.2089
-0.03712 0.25593001 0.16576999
-0.034430001 0.25575 0.16766
-0.02468 0.26165003 0.16474
-0.0244 0.26273 0.16328999
-0.041469999 0.25005001 0.17238
-0.04047 0.25036001 0.17253999
-0.039209999 0.25156999 0.17129
-0.03822 0.25189 0.17145
-0.04789 0.26356 0.21160001
-0.04862 0.26380002 0.2101
-0.04716 0.26337999 0.2131
-0.04741 0.26341999 0.21438
-0.03094 0.23855002 0.19699
-0.030680001 0.23945001 0.19563
-0.02864 0.25644004 0.19135
-0.028729999 0.25696003 0.19049001
-0.031860001 0.24193001 0.19118001
-0.032120001 0.24093002 0.19256
-0.033829998 0.24162002 0.19083001
0.051309995 0.31731001 0.18159001
0.051199995 0.31793001 0.18288
0.050349995 0.31716999 0.18155
0.055059999 0.3204 0.18406001
0.05601 0.32085001 0.18403
0.068099998 0.31819001 0.18726
0.058219999 0.32042 0.18138
0.057119995 0.32082999 0.18266
0.061219998 0.32006001 0.18172
0.061099999 0.32080001 0.183
0.062990002 0.31854001 0.18048
0.064709999 0.31819001 0.18221
0.064340003 0.31727001 0.18064
0.063349999 0.31843999 0.18083
0.066289999 0.31981 0.18626
0.046879999 0.28404 0.17436001
0.042199999 0.28332001 0.17215
0.045589998 0.28218001 0.17573
0.047569998 0.28308001 0.17601
0.047990002 0.28115001 0.17910001
0.046999998 0.28071001 0.17896
0.046289995 0.28143999 0.17735
0.052699998 0.28323001 0.18113001
0.05297 0.28396001 0.17973
0.050559998 0.28465 0.17639001
0.044840001 0.26691002 0.20058
0.04586 0.26849002 0.20061
0.051879995 0.28058001 0.18539
0.051600002 0.27985001 0.18679
0.050609998 0.27928001 0.18666001
0.050870001 0.27979004 0.18528999
0.042499997 0.28485 0.17062999
0.040809996 0.28558999 0.16881999
0.042839997 0.28817999 0.16889
0.041479997 0.28841999 0.16835999
0.041510001 0.28450999 0.17048
0.041829996 0.28705001 0.16883001
0.040520001 0.28417 0.17033
0.03912 0.2861 0.16703001
0.039820001 0.28525001 0.16867
0.038830001 0.28492001 0.16852
0.03799 0.28863001 0.16717
0.038410001 0.28689 0.16725001
0.04022 0.28264999 0.17185999
0.042899996 0.28235999 0.17380001
0.048110001 0.29879999 0.16862001
0.046149999 0.29828 0.16838001
0.053429998 0.28306001 0.18266
0.049269997 0.28279001 0.17776
0.04281 0.28055 0.17955001
0.042549998 0.28027001 0.18089999
0.043779999 0.28020999 0.17978001
0.04778 0.31478 0.17738
0.047040001 0.31366 0.17580999
0.047619998 0.31355 0.17632
0.047150001 0.31233001 0.17519
0.052429996 0.28227001 0.18256
0.043519996 0.27959001 0.18117
0.048149996 0.27873003 0.18352
0.049149998 0.27929002 0.18364
0.051150002 0.28064001 0.18387
0.049419999 0.28013 0.18223
0.05015 0.28007999 0.18375
0.049699999 0.28108999 0.18081
0.050700001 0.28165001 0.18093
0.050969996 0.28262001 0.1795
0.046859995 0.31235 0.17488
0.04654 0.31115001 0.17399999
0.03004 0.27173001 0.18222
0.031769998 0.2719 0.1839
0.032749999 0.27212 0.18406001
0.044759996 0.27987003 0.18000001
0.046009995 0.28048 0.1788
0.046729997 0.27986002 0.18038
0.040709995 0.27616 0.18512
0.037409998 0.27193999 0.18634
0.053739995 0.29063001 0.20608
0.053289995 0.289 0.20558
0.033459999 0.27149999 0.18562999
0.034449998 0.27161002 0.18581
0.042959996 0.27733999 0.18404999
0.0064499993 0.27081001 0.17782
0.006169999 0.26963001 0.17927
0.0071600005 0.26997 0.17941999
0.0034800004 0.27003002 0.17735
0.0051799994 0.26930004 0.17912
0.047799997 0.29155001 0.16954
0.04682 0.29067999 0.16938999
0.030959997 0.2897 0.15656
0.031800002 0.29185 0.15548
0.051600002 0.29539999 0.16968
-0.01294 0.29728001 0.15354
-0.01371 0.29655999 0.15407
0.026799999 0.29153001 0.15146001
0.027169999 0.29366001 0.15102001
0.025989998 0.29363999 0.15053
0.02555 0.29297 0.15042999
0.017859999 0.29003999 0.149
0.019919999 0.28885001 0.15037
0.016959999 0.28964999 0.14888
0.020909999 0.28920001 0.1505
0.061069995 0.30392 0.17395
0.02784 0.31132001 0.15555
0.02888 0.3114 0.15599
0.018179998 0.31118 0.15347999
0.021839999 0.30732 0.15299
0.025589999 0.29512 0.15073
0.024569999 0.29495999 0.15046
0.040509999 0.29082999 0.16743
0.038710002 0.28242999 0.17439
0.03774 0.28266001 0.17418
0.01718 0.27680999 0.17509
0.019779999 0.27335 0.17735
0.020489998 0.27215999 0.17899001
-0.020160001 0.29087001 0.17009
-0.02036 0.28968999 0.17106999
-0.01318 0.29523 0.15363
-0.01241 0.29596001 0.1531
-0.01186 0.29453999 0.15273
-0.01107 0.29519001 0.15228
-0.016249999 0.28938001 0.15225001
-0.017349999 0.28876999 0.15181001
-0.01396 0.29449999 0.15414999
-0.091760002 0.31101 0.23898
-0.092639998 0.31676 0.22719
-0.092759997 0.31615001 0.22804999
-0.092840001 0.31974 0.22777
-0.09223 0.31202999 0.22675
-0.063210003 0.31005999 0.25974
-0.090350002 0.31676 0.25400001
-0.090369999 0.31595001 0.25323001
-0.089220002 0.32242 0.25650999
-0.088869996 0.32442999 0.25626999
-0.086790003 0.31652001 0.25922
-0.081370004 0.30315 0.26205999
-0.081919998 0.30188 0.26098001
-0.082570001 0.30215001 0.26019001
-0.082780004 0.30344999 0.26065999
-0.081699997 0.30054 0.26054999
-0.083970003 0.29499 0.25453001
-0.083470002 0.29618999 0.25566
-0.084660001 0.30052999 0.25608999
-0.084720001 0.30419999 0.25830999
-0.087190002 0.3091 0.25716001
-0.085989997 0.30502999 0.25650001
-0.084320001 0.30528 0.25955999
-0.084969997 0.30554 0.25876999
-0.085550003 0.30583 0.25793001
-0.085089996 0.30318999 0.257
-0.09262 0.32416001 0.25255001
-0.091980003 0.32385001 0.25339001
-0.093350001 0.32444 0.25171
-0.088789999 0.31878999 0.25714999
-0.089419998 0.31907001 0.25635001
-0.090039998 0.32091001 0.25573999
-0.090709999 0.32113001 0.25499001
0.02589 0.33978999 0.23643
-0.080930002 0.32047001 0.26269001
-0.079360001 0.32273 0.26266
-0.082840003 0.31608999 0.26223999
-0.0647 0.30572 0.26284
-0.066569999 0.3057 0.26444
-0.064839996 0.30752 0.26273
-0.065329999 0.30689001 0.26339
-0.069049999 0.30610001 0.26578999
-0.068020001 0.30634001 0.26530999
-0.065839998 0.30274001 0.26392001
-0.073169999 0.31119001 0.26636001
-0.072870001 0.30770999 0.26648
-0.071670003 0.30467001 0.26644999
-0.077330001 0.33155 0.25861999
-0.07869 0.33008 0.25913
-0.01287 0.336 0.23952
-0.01319 0.33452001 0.2401
-0.01176 0.33634999 0.23994
-0.01246 0.33320001 0.24098
-0.05635 0.37935001 0.24031
-0.059069999 0.37661004 0.23961
-0.084169999 0.33313999 0.25367001
-0.083059996 0.3335 0.25407001
-0.084449999 0.33206001 0.25461
-0.085280001 0.33278999 0.25327
-0.07649 0.32627001 0.26203999
-0.07474 0.3249 0.26306999
-0.077890001 0.32460001 0.26241001
-0.076849997 0.32466999 0.26262
-0.07581 0.32475001 0.26282999
-0.077210002 0.32306001 0.26319
-0.07756 0.32611999 0.26179001
-0.075089999 0.32328001 0.26361999
-0.050360002 0.39105999 0.23886
-0.049490001 0.39178002 0.23872
-0.048670001 0.39243001 0.23795
0.010189999 0.33805001 0.24276
-0.051040001 0.38464999 0.23968001
-0.051509999 0.38616002 0.24017
-0.0517 0.38398004 0.24038
-0.05102 0.38631004 0.23985
-0.084710002 0.33085001 0.25540999
-0.05046 0.39172 0.23852
-0.091930002 0.32328001 0.25354001
-0.091260001 0.32306999 0.25429001
-0.090659998 0.32471001 0.25450999
-0.08901 0.32638001 0.25516
-0.090099998 0.32569 0.25464001
-0.08811 0.32539001 0.25644001
-0.087739997 0.32699999 0.25584999
-0.089730002 0.32731 0.25406
-0.078989998 0.32878 0.25992
-0.078599997 0.32604 0.26157001
-0.078259997 0.32754999 0.26093
-0.07931 0.32736 0.26062
-0.080530003 0.32708001 0.26027
-0.080090001 0.32852 0.25960001
-0.051229998 0.39042002 0.2386
-0.053569999 0.38731003 0.23819
-0.052269999 0.38786 0.23947001
-0.05229 0.38824999 0.23914
-0.05263 0.38683003 0.23986
-0.050870001 0.39466 0.23559999
-0.098020002 0.38647002 0.20545
-0.098719999 0.38795 0.20473
-0.050519999 0.39600003 0.23390999
-0.050749999 0.39512002 0.23229
-0.052209999 0.39203 0.23323999
-0.052359998 0.39111 0.23164999
-0.052919999 0.39037001 0.2325
-0.05342 0.38960999 0.23334999
-0.094899997 0.38209999 0.20784999
-0.07818 0.31562001 0.2649
-0.077710003 0.3145 0.26521999
-0.076700002 0.31198999 0.2658
-0.049229998 0.39895004 0.23293
-0.051630002 0.39286 0.23238
0.010339998 0.33326 0.24411
0.0081999991 0.33283001 0.2446
0.0088099986 0.33131 0.24465001
0.0098199993 0.33640999 0.24323
0.0088899992 0.33678001 0.24330001
0.010789998 0.33618 0.24323
-0.080779999 0.30757999 0.26350001
-0.083250001 0.30928001 0.26198
-0.083230004 0.31092 0.26214001
-0.081589997 0.30921 0.2631
-0.087410003 0.30787 0.25143
-0.087899998 0.30950001 0.25130001
-0.087520003 0.30840001 0.25059
-0.080619998 0.30302 0.26273
-0.082379997 0.30610001 0.26210999
-0.079889998 0.30443999 0.26361999
-0.067299999 0.30513999 0.26486
-0.068779998 0.30401999 0.26563999
-0.069200002 0.29547 0.26300001
-0.0691 0.29238001 0.25964999
-0.068149999 0.29839 0.26462999
-0.06684 0.29775 0.26366001
-0.068619996 0.29681 0.26405001
-0.067879997 0.29482001 0.26205999
-0.0605 0.29960999 0.26115999
-0.07175 0.29363 0.26155001
0.0082900003 0.30675 0.24267
0.0079800002 0.30572 0.24361999
0.0057699997 0.28716999 0.24467
0.0062600002 0.28593001 0.24421
0.0048200004 0.28687 0.24455
0.005309999 0.28834999 0.24524
0.0030099992 0.28876001 0.24591
0.0039099995 0.28924999 0.24566001
0.0021199994 0.28834 0.24606
0.0016299989 0.28960001 0.2465
-0.054990001 0.30254999 0.25159001
-0.054760002 0.30148 0.25066
-0.054329999 0.30212 0.2499
-0.04981 0.32655999 0.24082001
-0.049660001 0.32736 0.2397
-0.090020001 0.31068999 0.24309
-0.090360001 0.30932 0.24239001
-0.090750001 0.30972001 0.24153
-0.092859998 0.31736001 0.22876
-0.081660002 0.34461004 0.2384
-0.080600001 0.34474999 0.23867001
-0.081490003 0.34543002 0.23731001
-0.087090001 0.33761999 0.22482
-0.088610001 0.33592999 0.22655
-0.087980002 0.33798 0.22642
0.066880003 0.29306 0.19227
0.060539998 0.28582001 0.19332001
0.059539996 0.28481001 0.19324
0.061629996 0.28852999 0.18773
0.061190002 0.28944001 0.18478
0.060180001 0.28841001 0.18471
0.062349997 0.28870001 0.18923
0.064120002 0.29014 0.19075
0.057169996 0.28547999 0.18447
0.057449996 0.28654999 0.18302999
0.056889996 0.28452 0.1859
0.057889998 0.28542 0.18599001
0.058619998 0.28547001 0.1875
0.058899999 0.28643 0.18607
0.059629999 0.28648001 0.18757001
0.059359998 0.28564 0.18899
0.06177 0.29233 0.18174
0.060039997 0.29168999 0.18013
0.054710001 0.28481001 0.18133
0.056999996 0.28803 0.18003
0.057729997 0.28773999 0.18156999
0.055709995 0.28560001 0.18143
0.047320001 0.31125 0.17437001
0.0572 0.30070001 0.17252
0.050030001 0.31033999 0.17196999
0.049690001 0.31127 0.17297
0.048780002 0.31081 0.17314
0.070670001 0.30057001 0.19069
-0.053180002 0.31018999 0.17936
-0.05367 0.31141999 0.18000001
-0.05452 0.31364 0.18163
-0.056200001 0.31246001 0.1823
-0.066469997 0.29521999 0.18228
-0.065739997 0.296 0.18162
-0.066760004 0.29514 0.18254
-0.090549998 0.37999004 0.18794
-0.090609998 0.37902004 0.18808
-0.090740003 0.37283003 0.18991999
-0.091119997 0.37321001 0.18979
-0.09008 0.37371004 0.18959001
-0.093950003 0.38850003 0.18974
-0.093740001 0.38529003 0.18929
-0.094300002 0.38587999 0.19046
-0.04795 0.40127003 0.23024
-0.097719997 0.39704001 0.19792999
0.025819998 0.34407002 0.23286
-0.045759998 0.40177 0.23174
-0.046980001 0.40250003 0.23141
0.03723 0.3371 0.22825
-0.043639999 0.40419 0.22418
-0.04146 0.40372002 0.22174001
-0.040509999 0.40347999 0.22184999
-0.044890001 0.40408003 0.22691999
0.068070002 0.31887999 0.18886
0.06944 0.31635001 0.18825001
0.070969999 0.31367001 0.19578999
0.071280003 0.31252 0.19505
0.070090003 0.31279001 0.20107
0.070390001 0.31174001 0.20073999
0.070670001 0.31 0.2007
0.069470003 0.31448999 0.20138
0.070200004 0.31413001 0.1998
0.031009998 0.34005001 0.23243999
0.029259998 0.34123001 0.23301999
0.030339997 0.34153 0.23175
0.029449999 0.34211001 0.23203
0.028719999 0.34333003 0.23113
0.028859999 0.34395999 0.22994
0.01926 0.34666002 0.23367999
0.019090001 0.34588003 0.23476
0.015409999 0.32813001 0.24258
0.053829998 0.32062 0.18681
0.070309997 0.31039 0.18698999
0.069169998 0.31421 0.18592
0.069600001 0.31384999 0.1868
0.070050001 0.31476 0.18838
0.070040002 0.31345001 0.18762
-0.070359997 0.34312999 0.22392
-0.06944 0.34356999 0.22527
-0.069360003 0.34290999 0.22408
-0.072760001 0.34622002 0.2271
-0.06837 0.34292001 0.22416
-0.06825 0.34255999 0.22284
-0.06188 0.34149 0.22483
-0.070639998 0.34498 0.22623
-0.079559997 0.34485 0.23889001
-0.088299997 0.35018003 0.23029999
-0.067620002 0.35386002 0.23072
-0.067299999 0.35574001 0.23092
-0.068070002 0.35497004 0.2316
-0.068410002 0.35316002 0.23131
-0.067170002 0.3527 0.22994
-0.06797 0.35206002 0.23041999
-0.02341 0.31463999 0.24028
-0.024660001 0.32945001 0.2348
-0.020780001 0.34051001 0.19021
-0.020640001 0.33985999 0.18897
-0.02176 0.34011 0.19024
-0.02417 0.34434003 0.20749
-0.02014 0.34288001 0.19394
-0.0080399998 0.30568999 0.24195001
-0.0083999997 0.30113 0.24067
-0.021120001 0.31161001 0.24093001
-0.05418 0.33243001 0.20104
-0.054299999 0.33316001 0.20228
-0.054900002 0.33052 0.19862001
-0.051100001 0.33320999 0.19966
-0.081560001 0.35813004 0.20556
-0.080449998 0.35626 0.2076
-0.054420002 0.33368 0.20356999
-0.05542 0.33318001 0.20363
-0.079839997 0.35607004 0.2086
-0.080140002 0.35446 0.20908999
-0.055860002 0.35763001 0.23822001
-0.054949999 0.35815001 0.23803
-0.050129998 0.33353001 0.19965
-0.050000001 0.33256 0.19848
-0.042800002 0.33585 0.22115
-0.043820001 0.33586001 0.221
-0.041859999 0.3353 0.22262
-0.045150001 0.33447 0.22321001
-0.045030002 0.33511001 0.22197001
-0.043979999 0.33517 0.22217999
-0.044199999 0.33513001 0.19971
-0.046289999 0.33506 0.20100001
-0.0471 0.33495 0.22154
-0.046069998 0.33504 0.22177
-0.05528 0.33265001 0.20234001
-0.05624 0.33210999 0.2024
-0.068099998 0.33272001 0.21228001
-0.069509998 0.33361 0.21294001
-0.069080003 0.33249 0.21209
-0.083609998 0.35859001 0.20300999
-0.085469998 0.35747004 0.20271
-0.053300001 0.33469 0.23162
-0.05218 0.33374 0.2308
-0.052370001 0.33373001 0.23183
-0.051449999 0.33342999 0.23007999
-0.037640002 0.32181999 0.23773
-0.039019998 0.32023999 0.23810001
-0.036619999 0.32178 0.23782
-0.037950002 0.32041001 0.23839
-0.036910001 0.32045999 0.23857
-0.03726 0.31887001 0.23912001
-0.073430002 0.34825999 0.23501
-0.074309997 0.34773004 0.23367
-0.073310003 0.34820002 0.23360001
-0.072190002 0.34838003 0.2322
-0.07209 0.34767002 0.23100001
-0.072470002 0.34900004 0.23486
-0.073540002 0.34799004 0.23654
-0.071560003 0.35100001 0.23571999
-0.066880003 0.34035 0.2193
-0.066030003 0.34121001 0.22057
-0.065889999 0.34014001 0.21946
-0.06701 0.34132001 0.22044
-0.071960002 0.34531003 0.22538
-0.087099999 0.3389 0.22553
-0.086120002 0.34325999 0.23677
-0.085409999 0.34680003 0.23436999
-0.082560003 0.34529001 0.23705
-0.081309997 0.34625 0.23622
-0.080279998 0.34619004 0.23634
-0.081129998 0.34707004 0.23514
-0.081909999 0.34819001 0.23411
-0.083630003 0.34501004 0.23669
-0.085790001 0.34925002 0.23259
-0.083389997 0.34612 0.23582
-0.087739997 0.35464001 0.22945
-0.088150002 0.35277003 0.2297
-0.088869996 0.35408002 0.22882999
-0.081820004 0.34388 0.23955999
-0.082900003 0.34363002 0.23921999
-0.08422 0.34251004 0.23992001
-0.083980002 0.34337002 0.23886999
-0.084700003 0.34951001 0.23294
-0.094700001 0.33256999 0.24162
-0.094240002 0.32644001 0.23782
-0.095339999 0.32668999 0.23938
-0.094530001 0.32519001 0.23949
-0.095339999 0.32905 0.23844001
-0.095229998 0.32730001 0.23853
-0.092639998 0.32453999 0.23636
0.016819999 0.29462001 0.24494
0.021499999 0.29087999 0.24282999
0.02293 0.29212999 0.24253
0.021499999 0.29366001 0.24388
0.01503 0.30186999 0.24582
0.01345 0.30311 0.24549
0.013639998 0.29457 0.24586999
0.012249999 0.29537001 0.24648
0.014049999 0.29626 0.24617
0.014460001 0.29793999 0.24643999
0.016729999 0.27526003 0.23456
0.01921 0.27723002 0.23576
0.02011 0.27770001 0.23553
0.02087 0.27564001 0.23379999
0.018939998 0.27802002 0.23713
0.0019000005 0.27047002 0.22933
0.015969999 0.28296 0.24126001
0.01602 0.28841001 0.24349
0.016429998 0.28733 0.24270999
0.013700001 0.27196002 0.23243999
0.013569999 0.27513003 0.23563001
-0.0034600012 0.27342999 0.22683001
-0.01392 0.27340001 0.22274999
-0.01351 0.27234 0.2219
-0.01437 0.27177 0.22234
-0.0060200002 0.27570999 0.22716001
0.0034499988 0.26892 0.2271
-0.017480001 0.27156001 0.22361
-0.01605 0.27344 0.22424001
-0.015659999 0.27236003 0.22344001
-0.0028700009 0.27383 0.22939999
-0.016170001 0.27090001 0.22269
-0.031649999 0.30291 0.24019
-0.032189999 0.30427 0.24044
-0.03799 0.30531999 0.24078999
-0.028349999 0.3026 0.23983
