# .PCD v0.7 - Point Cloud Data file format
VERSION 0.7
FIELDS x y z
SIZE 4 4 4
TYPE F F F
COUNT 1 1 1
WIDTH 452
HEIGHT 1
VIEWPOINT 0 0 0 1 0 0 0
POINTS 452
DATA ascii
8.9793201e-10 0 -10
8.8687702e-10 1.40467e-10 -10
8.5398399e-10 2.7747599e-10 -10
8.0006302e-10 4.0765299e-10 -10
7.2644202e-10 5.2779098e-10 -10
6.3493399e-10 6.3493399e-10 -10
5.2779098e-10 7.2644202e-10 -10
4.0765299e-10 8.0006302e-10 -10
2.7747599e-10 8.5398399e-10 -10
1.40467e-10 8.8687702e-10 -10
4.0314302e-20 8.9793201e-10 -10
-1.40467e-10 8.8687702e-10 -10
-2.7747599e-10 8.5398399e-10 -10
-4.0765299e-10 8.0006302e-10 -10
-5.2779098e-10 7.2644202e-10 -10
-6.3493399e-10 6.3493399e-10 -10
-7.2644202e-10 5.2779098e-10 -10
-8.0006302e-10 4.0765299e-10 -10
-8.5398399e-10 2.7747599e-10 -10
-8.8687702e-10 1.40467e-10 -10
-8.9793201e-10 8.0628997e-20 -10
-8.8687702e-10 -1.40467e-10 -10
-8.5398399e-10 -2.7747599e-10 -10
-8.0006302e-10 -4.0765299e-10 -10
-7.2644202e-10 -5.2779098e-10 -10
-6.3493399e-10 -6.3493399e-10 -10
-5.2779098e-10 -7.2644202e-10 -10
-4.0765299e-10 -8.0006302e-10 -10
-2.7747599e-10 -8.5398399e-10 -10
-1.40467e-10 -8.8687702e-10 -10
-1.20944e-19 -8.9793201e-10 -10
1.40467e-10 -8.8687702e-10 -10
2.7747599e-10 -8.5398399e-10 -10
4.0765299e-10 -8.0006302e-10 -10
5.2779098e-10 -7.2644202e-10 -10
6.3493399e-10 -6.3493399e-10 -10
7.2644202e-10 -5.2779098e-10 -10
8.0006302e-10 -4.0765299e-10 -10
8.5398399e-10 -2.7747599e-10 -10
8.8687702e-10 -1.40467e-10 -10
8.9793201e-10 -1.61259e-19 -10
1.56434 0 -9.8768797
1.5450799 0.244717 -9.8768797
1.48778 0.48340899 -9.8768797
1.39384 0.71019799 -9.8768797
1.2655801 0.91949898 -9.8768797
1.10616 1.10616 -9.8768797
0.91949898 1.2655801 -9.8768797
0.71019799 1.39384 -9.8768797
0.48340899 1.48778 -9.8768797
0.244717 1.5450799 -9.8768797
7.0234103e-11 1.56434 -9.8768797
-0.244717 1.5450799 -9.8768797
-0.48340899 1.48778 -9.8768797
-0.71019799 1.39384 -9.8768797
-0.91949898 1.2655801 -9.8768797
-1.10616 1.10616 -9.8768797
-1.2655801 0.91949898 -9.8768797
-1.39384 0.71019799 -9.8768797
-1.48778 0.48340899 -9.8768797
-1.5450799 0.244717 -9.8768797
-1.56434 1.40469e-10 -9.8768797
-1.5450799 -0.244717 -9.8768797
-1.48778 -0.48340899 -9.8768797
-1.39384 -0.71019799 -9.8768797
-1.2655801 -0.91949898 -9.8768797
-1.10616 -1.10616 -9.8768797
-0.91949898 -1.2655801 -9.8768797
-0.71019799 -1.39384 -9.8768797
-0.48340899 -1.48778 -9.8768797
-0.244717 -1.5450799 -9.8768797
-2.10704e-10 -1.56434 -9.8768797
0.244717 -1.5450799 -9.8768797
0.48340899 -1.48778 -9.8768797
0.71019799 -1.39384 -9.8768797
0.91949898 -1.2655801 -9.8768797
1.10616 -1.10616 -9.8768797
1.2655801 -0.91949898 -9.8768797
1.39384 -0.71019799 -9.8768797
1.48778 -0.48340899 -9.8768797
1.5450799 -0.244717 -9.8768797
1.56434 -2.8093899e-10 -9.8768797
3.0901699 0 -9.5105696
3.05212 0.48340899 -9.5105696
2.93893 0.95491499 -9.5105696
2.75336 1.40291 -9.5105696
2.5 1.81636 -9.5105696
2.1850801 2.1850801 -9.5105696
1.81636 2.5 -9.5105696
1.40291 2.75336 -9.5105696
0.95491499 2.93893 -9.5105696
0.48340899 3.05212 -9.5105696
1.3873901e-10 3.0901699 -9.5105696
-0.48340899 3.05212 -9.5105696
-0.95491499 2.93893 -9.5105696
-1.40291 2.75336 -9.5105696
-1.81636 2.5 -9.5105696
-2.1850801 2.1850801 -9.5105696
-2.5 1.81636 -9.5105696
-2.75336 1.40291 -9.5105696
-2.93893 0.95491499 -9.5105696
-3.05212 0.48340899 -9.5105696
-3.0901699 2.7747901e-10 -9.5105696
-3.05212 -0.48340899 -9.5105696
-2.93893 -0.95491499 -9.5105696
-2.75336 -1.40291 -9.5105696
-2.5 -1.81636 -9.5105696
-2.1850801 -2.1850801 -9.5105696
-1.81636 -2.5 -9.5105696
-1.40291 -2.75336 -9.5105696
-0.95491499 -2.93893 -9.5105696
-0.48340899 -3.05212 -9.5105696
-4.1622e-10 -3.0901699 -9.5105696
0.48340899 -3.05212 -9.5105696
0.95491499 -2.93893 -9.5105696
1.40291 -2.75336 -9.5105696
1.81636 -2.5 -9.5105696
2.1850801 -2.1850801 -9.5105696
2.5 -1.81636 -9.5105696
2.75336 -1.40291 -9.5105696
2.93893 -0.95491499 -9.5105696
3.05212 -0.48340899 -9.5105696
3.0901699 -5.5496102e-10 -9.5105696
4.5398998 0 -8.9100704
4.4840102 0.71019799 -8.9100704
4.3177099 1.40291 -8.9100704
4.0450802 2.06107 -8.9100704
3.6728599 2.6684899 -8.9100704
3.2102001 3.2102001 -8.9100704
2.6684899 3.6728599 -8.9100704
2.06107 4.0450802 -8.9100704
1.40291 4.3177099 -8.9100704
0.71019799 4.4840102 -8.9100704
2.03827e-10 4.5398998 -8.9100704
-0.71019799 4.4840102 -8.9100704
-1.40291 4.3177099 -8.9100704
-2.06107 4.0450802 -8.9100704
-2.6684899 3.6728599 -8.9100704
-3.2102001 3.2102001 -8.9100704
-3.6728599 2.6684899 -8.9100704
-4.0450802 2.06107 -8.9100704
-4.3177099 1.40291 -8.9100704
-4.4840102 0.71019799 -8.9100704
-4.5398998 4.0765699e-10 -8.9100704
-4.4840102 -0.71019799 -8.9100704
-4.3177099 -1.40291 -8.9100704
-4.0450802 -2.06107 -8.9100704
-3.6728599 -2.6684899 -8.9100704
-3.2102001 -3.2102001 -8.9100704
-2.6684899 -3.6728599 -8.9100704
-2.06107 -4.0450802 -8.9100704
-1.40291 -4.3177099 -8.9100704
-0.71019799 -4.4840102 -8.9100704
-6.1148703e-10 -4.5398998 -8.9100704
0.71019799 -4.4840102 -8.9100704
1.40291 -4.3177099 -8.9100704
2.06107 -4.0450802 -8.9100704
2.6684899 -3.6728599 -8.9100704
3.2102001 -3.2102001 -8.9100704
3.6728599 -2.6684899 -8.9100704
4.0450802 -2.06107 -8.9100704
4.3177099 -1.40291 -8.9100704
4.4840102 -0.71019799 -8.9100704
4.5398998 -8.1531698e-10 -8.9100704
5.8778501 0 -8.0901699
5.80549 0.91949898 -8.0901699
5.5901699 1.81636 -8.0901699
5.2371998 2.6684899 -8.0901699
4.75528 3.4549201 -8.0901699
4.15627 4.15627 -8.0901699
3.4549201 4.75528 -8.0901699
2.6684899 5.2371998 -8.0901699
1.81636 5.5901699 -8.0901699
0.91949898 5.80549 -8.0901699
2.6389699e-10 5.8778501 -8.0901699
-0.91949898 5.80549 -8.0901699
-1.81636 5.5901699 -8.0901699
-2.6684899 5.2371998 -8.0901699
-3.4549201 4.75528 -8.0901699
-4.15627 4.15627 -8.0901699
-4.75528 3.4549201 -8.0901699
-5.2371998 2.6684899 -8.0901699
-5.5901699 1.81636 -8.0901699
-5.80549 0.91949898 -8.0901699
-5.8778501 5.2779597e-10 -8.0901699
-5.80549 -0.91949898 -8.0901699
-5.5901699 -1.81636 -8.0901699
-5.2371998 -2.6684899 -8.0901699
-4.75528 -3.4549201 -8.0901699
-4.15627 -4.15627 -8.0901699
-3.4549201 -4.75528 -8.0901699
-2.6684899 -5.2371998 -8.0901699
-1.81636 -5.5901699 -8.0901699
-0.91949898 -5.80549 -8.0901699
-7.9169699e-10 -5.8778501 -8.0901699
0.91949898 -5.80549 -8.0901699
1.81636 -5.5901699 -8.0901699
2.6684899 -5.2371998 -8.0901699
3.4549201 -4.75528 -8.0901699
4.15627 -4.15627 -8.0901699
4.75528 -3.4549201 -8.0901699
5.2371998 -2.6684899 -8.0901699
5.5901699 -1.81636 -8.0901699
5.80549 -0.91949898 -8.0901699
5.8778501 -1.0556001e-09 -8.0901699
7.0710702 0 -7.0710702
6.9840102 1.10616 -7.0710702
6.7249899 2.1850801 -7.0710702
6.3003702 3.2102001 -7.0710702
5.7206101 4.15627 -7.0710702
5 5 -7.0710702
4.15627 5.7206101 -7.0710702
3.2102001 6.3003702 -7.0710702
2.1850801 6.7249899 -7.0710702
1.10616 6.9840102 -7.0710702
3.17468e-10 7.0710702 -7.0710702
-1.10616 6.9840102 -7.0710702
-2.1850801 6.7249899 -7.0710702
-3.2102001 6.3003702 -7.0710702
-4.15627 5.7206101 -7.0710702
-5 5 -7.0710702
-5.7206101 4.15627 -7.0710702
-6.3003702 3.2102001 -7.0710702
-6.7249899 2.1850801 -7.0710702
-6.9840102 1.10616 -7.0710702
-7.0710702 6.3493999e-10 -7.0710702
-6.9840102 -1.10616 -7.0710702
-6.7249899 -2.1850801 -7.0710702
-6.3003702 -3.2102001 -7.0710702
-5.7206101 -4.15627 -7.0710702
-5 -5 -7.0710702
-4.15627 -5.7206101 -7.0710702
-3.2102001 -6.3003702 -7.0710702
-2.1850801 -6.7249899 -7.0710702
-1.10616 -6.9840102 -7.0710702
-9.5241304e-10 -7.0710702 -7.0710702
1.10616 -6.9840102 -7.0710702
2.1850801 -6.7249899 -7.0710702
3.2102001 -6.3003702 -7.0710702
4.15627 -5.7206101 -7.0710702
5 -5 -7.0710702
5.7206101 -4.15627 -7.0710702
6.3003702 -3.2102001 -7.0710702
6.7249899 -2.1850801 -7.0710702
6.9840102 -1.10616 -7.0710702
7.0710702 -1.26989e-09 -7.0710702
8.0901699 0 -5.8778501
7.9905701 1.2655801 -5.8778501
7.6942101 2.5 -5.8778501
7.2083902 3.6728599 -5.8778501
6.5450802 4.75528 -5.8778501
5.7206101 5.7206101 -5.8778501
4.75528 6.5450802 -5.8778501
3.6728599 7.2083902 -5.8778501
2.5 7.6942101 -5.8778501
1.2655801 7.9905701 -5.8778501
3.6322301e-10 8.0901699 -5.8778501
-1.2655801 7.9905701 -5.8778501
-2.5 7.6942101 -5.8778501
-3.6728599 7.2083902 -5.8778501
-4.75528 6.5450802 -5.8778501
-5.7206101 5.7206101 -5.8778501
-6.5450802 4.75528 -5.8778501
-7.2083902 3.6728599 -5.8778501
-7.6942101 2.5 -5.8778501
-7.9905701 1.2655801 -5.8778501
-8.0901699 7.2644901e-10 -5.8778501
-7.9905701 -1.2655801 -5.8778501
-7.6942101 -2.5 -5.8778501
-7.2083902 -3.6728599 -5.8778501
-6.5450802 -4.75528 -5.8778501
-5.7206101 -5.7206101 -5.8778501
-4.75528 -6.5450802 -5.8778501
-3.6728599 -7.2083902 -5.8778501
-2.5 -7.6942101 -5.8778501
-1.2655801 -7.9905701 -5.8778501
-1.08968e-09 -8.0901699 -5.8778501
1.2655801 -7.9905701 -5.8778501
2.5 -7.6942101 -5.8778501
3.6728599 -7.2083902 -5.8778501
4.75528 -6.5450802 -5.8778501
5.7206101 -5.7206101 -5.8778501
6.5450802 -4.75528 -5.8778501
7.2083902 -3.6728599 -5.8778501
7.6942101 -2.5 -5.8778501
7.9905701 -1.2655801 -5.8778501
8.0901699 -1.45291e-09 -5.8778501
8.9100704 0 -4.5398998
8.8003702 1.39384 -4.5398998
8.4739799 2.75336 -4.5398998
7.93893 4.0450802 -4.5398998
7.2083902 5.2371998 -4.5398998
6.3003702 6.3003702 -4.5398998
5.2371998 7.2083902 -4.5398998
4.0450802 7.93893 -4.5398998
2.75336 8.4739799 -4.5398998
1.39384 8.8003702 -4.5398998
4.0003401e-10 8.9100704 -4.5398998
-1.39384 8.8003702 -4.5398998
-2.75336 8.4739799 -4.5398998
-4.0450802 7.93893 -4.5398998
-5.2371998 7.2083902 -4.5398998
-6.3003702 6.3003702 -4.5398998
-7.2083902 5.2371998 -4.5398998
-7.93893 4.0450802 -4.5398998
-8.4739799 2.75336 -4.5398998
-8.8003702 1.39384 -4.5398998
-8.9100704 8.0007101e-10 -4.5398998
-8.8003702 -1.39384 -4.5398998
-8.4739799 -2.75336 -4.5398998
-7.93893 -4.0450802 -4.5398998
-7.2083902 -5.2371998 -4.5398998
-6.3003702 -6.3003702 -4.5398998
-5.2371998 -7.2083902 -4.5398998
-4.0450802 -7.93893 -4.5398998
-2.75336 -8.4739799 -4.5398998
-1.39384 -8.8003702 -4.5398998
-1.20011e-09 -8.9100704 -4.5398998
1.39384 -8.8003702 -4.5398998
2.75336 -8.4739799 -4.5398998
4.0450802 -7.93893 -4.5398998
5.2371998 -7.2083902 -4.5398998
6.3003702 -6.3003702 -4.5398998
7.2083902 -5.2371998 -4.5398998
7.93893 -4.0450802 -4.5398998
8.4739799 -2.75336 -4.5398998
8.8003702 -1.39384 -4.5398998
8.9100704 -1.60015e-09 -4.5398998
9.5105696 0 -3.0901699
9.3934698 1.48778 -3.0901699
9.0450802 2.93893 -3.0901699
8.4739799 4.3177099 -3.0901699
7.6942101 5.5901699 -3.0901699
6.7249899 6.7249899 -3.0901699
5.5901699 7.6942101 -3.0901699
4.3177099 8.4739799 -3.0901699
2.93893 9.0450802 -3.0901699
1.48778 9.3934698 -3.0901699
4.26994e-10 9.5105696 -3.0901699
-1.48778 9.3934698 -3.0901699
-2.93893 9.0450802 -3.0901699
-4.3177099 8.4739799 -3.0901699
-5.5901699 7.6942101 -3.0901699
-6.7249899 6.7249899 -3.0901699
-7.6942101 5.5901699 -3.0901699
-8.4739799 4.3177099 -3.0901699
-9.0450802 2.93893 -3.0901699
-9.3934698 1.48778 -3.0901699
-9.5105696 8.5399199e-10 -3.0901699
-9.3934698 -1.48778 -3.0901699
-9.0450802 -2.93893 -3.0901699
-8.4739799 -4.3177099 -3.0901699
-7.6942101 -5.5901699 -3.0901699
-6.7249899 -6.7249899 -3.0901699
-5.5901699 -7.6942101 -3.0901699
-4.3177099 -8.4739799 -3.0901699
-2.93893 -9.0450802 -3.0901699
-1.48778 -9.3934698 -3.0901699
-1.28099e-09 -9.5105696 -3.0901699
1.48778 -9.3934698 -3.0901699
2.93893 -9.0450802 -3.0901699
4.3177099 -8.4739799 -3.0901699
5.5901699 -7.6942101 -3.0901699
6.7249899 -6.7249899 -3.0901699
7.6942101 -5.5901699 -3.0901699
8.4739799 -4.3177099 -3.0901699
9.0450802 -2.93893 -3.0901699
9.3934698 -1.48778 -3.0901699
9.5105696 -1.70799e-09 -3.0901699
9.8768797 0 -1.56434
9.7552795 1.5450799 -1.56434
9.3934698 3.05212 -1.56434
8.8003702 4.4840102 -1.56434
7.9905701 5.80549 -1.56434
6.9840102 6.9840102 -1.56434
5.80549 7.9905701 -1.56434
4.4840102 8.8003702 -1.56434
3.05212 9.3934698 -1.56434
1.5450799 9.7552795 -1.56434
4.4344101e-10 9.8768797 -1.56434
-1.5450799 9.7552795 -1.56434
-3.05212 9.3934698 -1.56434
-4.4840102 8.8003702 -1.56434
-5.80549 7.9905701 -1.56434
-6.9840102 6.9840102 -1.56434
-7.9905701 5.80549 -1.56434
-8.8003702 4.4840102 -1.56434
-9.3934698 3.05212 -1.56434
-9.7552795 1.5450799 -1.56434
-9.8768797 8.8688601e-10 -1.56434
-9.7552795 -1.5450799 -1.56434
-9.3934698 -3.05212 -1.56434
-8.8003702 -4.4840102 -1.56434
-7.9905701 -5.80549 -1.56434
-6.9840102 -6.9840102 -1.56434
-5.80549 -7.9905701 -1.56434
-4.4840102 -8.8003702 -1.56434
-3.05212 -9.3934698 -1.56434
-1.5450799 -9.7552795 -1.56434
-1.33033e-09 -9.8768797 -1.56434
1.5450799 -9.7552795 -1.56434
3.05212 -9.3934698 -1.56434
4.4840102 -8.8003702 -1.56434
5.80549 -7.9905701 -1.56434
6.9840102 -6.9840102 -1.56434
7.9905701 -5.80549 -1.56434
8.8003702 -4.4840102 -1.56434
9.3934698 -3.05212 -1.56434
9.7552795 -1.5450799 -1.56434
9.8768797 -1.77378e-09 -1.56434
10 0 4.4895701e-10
9.8768797 1.56434 4.4895701e-10
9.5105696 3.0901699 4.4895701e-10
8.9100704 4.5398998 4.4895701e-10
8.0901699 5.8778501 4.4895701e-10
7.0710702 7.0710702 4.4895701e-10
5.8778501 8.0901699 4.4895701e-10
4.5398998 8.9100704 4.4895701e-10
3.0901699 9.5105696 4.4895701e-10
1.56434 9.8768797 4.4895701e-10
4.48968e-10 10 4.4895701e-10
-1.56434 9.8768797 4.4895701e-10
-3.0901699 9.5105696 4.4895701e-10
-4.5398998 8.9100704 4.4895701e-10
-5.8778501 8.0901699 4.4895701e-10
-7.0710702 7.0710702 4.4895701e-10
-8.0901699 5.8778501 4.4895701e-10
-8.9100704 4.5398998 4.4895701e-10
-9.5105696 3.0901699 4.4895701e-10
-9.8768797 1.56434 4.4895701e-10
-10 8.97941e-10 4.4895701e-10
-9.8768797 -1.56434 4.4895701e-10
-9.5105696 -3.0901699 4.4895701e-10
-8.9100704 -4.5398998 4.4895701e-10
-8.0901699 -5.8778501 4.4895701e-10
-7.0710702 -7.0710702 4.4895701e-10
-5.8778501 -8.0901699 4.4895701e-10
-4.5398998 -8.9100704 4.4895701e-10
-3.0901699 -9.5105696 4.4895701e-10
-1.56434 -9.8768797 4.4895701e-10
-1.34692e-09 -10 4.4895701e-10
1.56434 -9.8768797 4.4895701e-10
3.0901699 -9.5105696 4.4895701e-10
4.5398998 -8.9100704 4.4895701e-10
5.8778501 -8.0901699 4.4895701e-10
7.0710702 -7.0710702 4.4895701e-10
8.0901699 -5.8778501 4.4895701e-10
8.9100704 -4.5398998 4.4895701e-10
9.5105696 -3.0901699 4.4895701e-10
9.8768797 -1.56434 4.4895701e-10
10 -1.79589e-09 4.4895701e-10
10 -1.79589e-09 4.4895701e-10
